# .PCD v0.7 - Point Cloud Data file format
VERSION 0.7
FIELDS x y z
SIZE 4 4 4
TYPE F F F
COUNT 1 1 1
WIDTH 1548
HEIGHT 1
VIEWPOINT 0 0 0 1 0 0 0
POINTS 1548
DATA ascii
-15193.037 -85013.164 36.367001
-15193.12 -85006.266 36.249001
-15193.015 -85006.141 36.255001
-15192.926 -85013.047 36.389
-15192.848 -85012.938 36.213001
-15192.843 -85011.594 36.240002
-15192.914 -85006.016 36.261002
-15192.853 -85005.867 36.262001
-15192.731 -85012.82 36.230999
-15192.632 -85012.695 36.248001
-15192.748 -85011.852 36.251999
-15192.706 -85005.766 36.275002
-15192.482 -85012.5 36.271999
-15192.599 -85005.648 36.285
-15192.491 -85005.531 36.293999
-15192.353 -85012.305 36.294998
-15192.393 -85005.398 36.303001
-15192.133 -85005.094 36.326
-15191.99 -85004.906 36.339001
-15191.895 -85004.773 36.348
-15191.788 -85004.656 36.359001
-15191.672 -85004.516 36.287998
-15191.605 -85004.398 36.379002
-15191.526 -85004.406 36.221001
-15191.486 -85004.289 36.390999
-15191.506 -85004.094 36.387001
-15188.692 -85001.773 36.342999
-15188.691 -85001.219 36.334
-15188.729 -85001.008 36.327999
-15188.685 -85000.852 36.328999
-15188.469 -85001.555 36.361
-15188.539 -85000.672 36.339001
-15188.321 -85000.539 36.355999
-15188.29 -85000.375 36.354
-15188.18 -85000.258 36.362
-15188.071 -85000.148 36.368999
-15187.994 -85000.016 36.373001
-15186.248 -85000.25 36.346001
-15186.164 -85000.125 36.349998
-15198.271 -85005.484 36.528
-15198.135 -85005.328 36.469002
-15196.031 -85002.977 36.535999
-15195.702 -85009.281 36.529999
-15195.616 -85009.18 36.435001
-15195.419 -85009.664 36.460999
-15195.508 -85009.055 36.446999
-15195.41 -85008.93 36.455002
-15195.303 -85008.805 36.464001
-15195.194 -85008.68 36.473
-15195.096 -85008.555 36.480999
-15194.983 -85008.438 36.491001
-15194.878 -85008.312 36.5
-15194.69 -85010.281 36.562
-15194.717 -85008.125 36.511002
-15194.555 -85007.945 36.521
-15194.047 -85010.844 36.471001
-15194.143 -85007.445 36.542
-15194.03 -85007.328 36.549
-15193.875 -85007.141 36.556
-15193.661 -85006.891 36.569
-15193.452 -85013.805 36.451
-15193.439 -85013.633 36.465
-15193.49 -85006.68 36.488998
-15193.403 -85006.57 36.582001
-15193.343 -85013.508 36.487999
-15193.22 -85013.398 36.512001
-15193.305 -85006.469 36.470001
-15193.124 -85013.273 36.533001
-15193.02 -85013.148 36.555
-15193.183 -85011.562 36.581001
-15193.168 -85006.312 36.507999
-15193.051 -85006.172 36.426998
-15193.064 -85005.844 36.587002
-15193.055 -85005.664 36.580002
-15192.905 -85013.031 36.577999
-15192.815 -85012.922 36.504002
-15192.97 -85006.031 36.43
-15192.956 -85005.852 36.424999
-15192.932 -85005.68 36.421001
-15192.877 -85005.484 36.591999
-15192.722 -85012.805 36.426998
-15192.625 -85012.68 36.443001
-15192.736 -85005.516 36.437
-15192.467 -85012.492 36.467999
-15192.595 -85005.328 36.446999
-15192.384 -85012.266 36.486
-15192.264 -85004.875 36.476002
-15192.121 -85004.688 36.487999
-15192.025 -85004.555 36.495998
-15191.924 -85004.438 36.507
-15191.822 -85004.312 36.516998
-15191.67 -85004.125 36.534
-15191.58 -85003.906 36.541
-15189.301 -85003.703 36.472
-15189.107 -85003.469 36.493
-15188.949 -85003.289 36.509998
-15188.848 -85003.172 36.521
-15188.747 -85003.055 36.530998
-15188.651 -85002.938 36.540001
-15188.65 -85001.836 36.523998
-15188.667 -85001.086 36.507
-15188.714 -85000.867 36.497002
-15188.61 -85000.75 36.506001
-15188.542 -85002.82 36.549999
-15188.446 -85002.695 36.558998
-15188.436 -85001.789 36.546001
-15188.565 -85001.336 36.522999
-15188.511 -85000.633 36.513
-15188.406 -85000.516 36.521
-15188.289 -85002.531 36.574001
-15188.331 -85001.672 36.554001
-15188.14 -85002.344 36.587002
-15188.2 -85000.281 36.534
-15188.055 -85000.102 36.542
-15186.309 -85000.219 36.527
-15186.217 -85000.094 36.532001
-15198.231 -85005.617 36.68
-15198.265 -85005.43 36.661999
-15198.121 -85005.32 36.678001
-15196.006 -85003.102 36.686001
-15195.991 -85002.93 36.676998
-15195.711 -85009.305 36.744999
-15195.555 -85009.094 36.687
-15195.438 -85008.984 36.703999
-15195.301 -85009.773 36.644001
-15195.349 -85008.852 36.715
-15195.228 -85008.711 36.644001
-15195.061 -85008.531 36.659
-15194.906 -85008.344 36.671001
-15194.623 -85010.344 36.744999
-15194.798 -85008.219 36.68
-15194.699 -85008.094 36.688
-15194.593 -85007.969 36.695999
-15194.165 -85007.477 36.720001
-15194.059 -85007.352 36.726002
-15193.946 -85010.914 36.664001
-15193.96 -85007.227 36.73
-15193.848 -85007.109 36.737
-15193.695 -85006.922 36.743999
-15193.416 -85013.617 36.645
-15193.477 -85006.672 36.757999
-15193.311 -85013.492 36.671001
-15193.252 -85011.508 36.758999
-15193.32 -85006.484 36.764999
-15193.21 -85006.359 36.771999
-15193.15 -85013.312 36.709999
-15193.107 -85006.234 36.777
-15193.077 -85006.203 36.601002
-15192.947 -85013.07 36.755001
-15192.803 -85012.883 36.785
-15192.988 -85006.094 36.695
-15192.891 -85005.992 36.790001
-15192.659 -85012.719 36.630001
-15192.772 -85005.875 36.799
-15192.71 -85005.312 36.603001
-15192.496 -85012.547 36.659
-15192.595 -85005.188 36.612999
-15192.399 -85012.414 36.674999
-15192.386 -85012.234 36.68
-15192.312 -85004.898 36.639
-15192.149 -85004.719 36.653999
-15192.037 -85004.602 36.664001
-15191.913 -85004.484 36.675999
-15191.804 -85004.367 36.687
-15189.318 -85003.711 36.646999
-15189.098 -85004.125 36.675999
-15189.117 -85003.469 36.669998
-15188.963 -85003.297 36.687
-15188.859 -85003.18 36.698002
-15188.753 -85003.062 36.709999
-15188.65 -85002.945 36.721001
-15188.618 -85001.875 36.705002
-15188.73 -85000.898 36.667999
-15188.556 -85002.828 36.73
-15188.452 -85002.711 36.740002
-15188.475 -85001.422 36.709999
-15188.593 -85001.164 36.691002
-15188.439 -85000.898 36.700001
-15188.536 -85000.656 36.682999
-15188.43 -85000.539 36.691002
-15188.24 -85004.844 36.782001
-15188.295 -85002.531 36.755001
-15188.328 -85000.422 36.699001
-15188.231 -85000.297 36.706001
-15188.145 -85002.359 36.768002
-15188.07 -85000.125 36.716
-15187.955 -85002.109 36.785
-15187.853 -85001.992 36.793999
-15186.316 -85000.227 36.714001
-15186.218 -85000.102 36.719002
-15198.262 -85005.5 36.876999
-15198.235 -85005.375 36.800999
-15198.178 -85005.336 36.948002
-15196.06 -85003.008 36.812
-15196.019 -85002.953 36.956001
-15195.658 -85009.469 36.918999
-15195.718 -85009.258 36.908001
-15195.536 -85009.086 36.936001
-15195.371 -85008.906 36.959999
-15195.266 -85008.766 36.894001
-15195.122 -85009.906 36.84
-15195.156 -85008.641 36.908001
-15195.045 -85008.5 36.834
-15194.879 -85008.312 36.848999
-15194.667 -85008.062 36.866001
-15194.527 -85010.414 36.933998
-15194.509 -85007.883 36.879002
-15194.4 -85007.758 36.888
-15194.09 -85007.383 36.903999
-15193.905 -85010.945 36.851002
-15193.976 -85007.266 36.910999
-15193.874 -85007.141 36.916
-15193.767 -85007.016 36.922001
-15193.659 -85006.898 36.928001
-15193.433 -85013.719 36.986
-15193.499 -85006.711 36.937
-15193.338 -85013.531 36.839001
-15193.253 -85011.5 36.945
-15193.342 -85006.523 36.945
-15193.236 -85006.398 36.950001
-15193.123 -85013.297 36.893002
-15193.133 -85006.266 36.956001
-15193.033 -85006.141 36.959999
-15192.965 -85013.117 36.931999
-15192.877 -85012.984 36.953999
-15192.943 -85006.008 36.964001
-15192.812 -85005.898 36.973
-15192.76 -85012.875 36.978001
-15192.676 -85012.758 36.903999
-15192.67 -85005.773 36.895
-15192.592 -85012.641 36.830002
-15192.485 -85012.523 36.852001
-15192.429 -85012.188 36.869999
-15192.381 -85012.398 36.873001
-15189.932 -85003.289 36.914001
-15189.842 -85003.078 36.923
-15189.71 -85002.883 36.938
-15189.631 -85002.75 36.945999
-15189.594 -85003.664 36.965
-15189.539 -85002.625 36.955002
-15189.458 -85002.492 36.964001
-15189.367 -85003.695 36.819
-15189.309 -85003.461 36.824001
-15189.254 -85003.312 36.828999
-15189.262 -85003.125 36.825001
-15189.306 -85002.312 36.98
-15189.103 -85004.125 36.855999
-15189.175 -85002.906 36.834
-15189.136 -85002.664 36.834999
-15189.072 -85002.523 36.841
-15189.001 -85002.391 36.848
-15189.154 -85002.141 36.997002
-15188.927 -85002.25 36.854
-15188.84 -85002.125 36.861
-15188.732 -85001.922 36.868999
-15188.606 -85001.188 36.865002
-15188.746 -85000.922 36.84
-15188.539 -85001.68 36.886002
-15188.481 -85001.445 36.887001
-15188.513 -85000.883 36.866001
-15188.555 -85000.68 36.854
-15188.444 -85000.562 36.862999
-15188.326 -85004.773 36.959999
-15188.346 -85000.445 36.870998
-15188.237 -85000.328 36.880001
-15188.131 -85000.211 36.888
-15188.044 -85000.086 36.893002
-15187.321 -85005.594 36.895
-15186.556 -85006.258 36.987999
-15198.26 -85005.484 37.085999
-15198.096 -85005.305 37.101002
-15196.058 -85003.031 37.101002
-15195.721 -85009.289 37.068001
-15195.612 -85009.172 37.088001
-15195.534 -85009.562 37.098999
-15195.509 -85009.047 37.104
-15195.344 -85008.867 37.130001
-15195.009 -85010.008 37.188999
-15195.053 -85009.969 37.018002
-15195.189 -85008.68 37.153
-15195.072 -85008.547 37.088001
-15194.966 -85008.422 37.102001
-15194.869 -85008.297 37.112999
-15194.702 -85008.094 37.039001
-15194.491 -85010.445 37.108002
-15194.528 -85007.914 37.055
-15194.429 -85007.789 37.062
-15194.009 -85007.289 37.09
-15193.924 -85010.938 37.112
-15193.891 -85007.172 37.098
-15193.79 -85007.047 37.103001
-15193.69 -85006.922 37.106998
-15193.443 -85013.68 37.171001
-15193.526 -85006.734 37.117001
-15193.327 -85013.531 37.077
-15193.292 -85011.469 37.118999
-15193.314 -85006.492 37.127998
-15193.15 -85013.336 37.061001
-15193.064 -85013.203 37.084999
-15193.158 -85006.297 37.136002
-15193.047 -85006.18 37.141998
-15192.956 -85013.086 37.112
-15192.854 -85012.961 37.138
-15192.972 -85006.039 37.143002
-15192.84 -85005.922 37.153
-15192.733 -85014.289 37.078999
-15192.749 -85012.844 37.165001
-15192.629 -85012.734 37.192001
-15192.725 -85005.805 37.16
-15192.572 -85012.617 37.02
-15192.459 -85012.5 37.042999
-15192.535 -85012.094 37.046001
-15192.351 -85012.383 37.066002
-15190.209 -85005.68 37.108002
-15190.097 -85005.562 37.118999
-15190.083 -85003.227 37.063999
-15189.982 -85003.109 37.076
-15189.885 -85002.984 37.087002
-15189.783 -85002.867 37.098999
-15189.673 -85002.75 37.112
-15189.513 -85003.727 37.153999
-15189.578 -85002.625 37.123001
-15189.469 -85002.508 37.136002
-15189.319 -85002.328 37.152
-15189.017 -85004.18 37.049
-15189.09 -85002.078 37.119999
-15188.954 -85001.914 37.105
-15188.845 -85001.789 37.028
-15188.743 -85001.672 37.036999
-15188.637 -85001.555 37.047001
-15188.652 -85001.188 37.034
-15188.715 -85000.898 37.103001
-15188.539 -85001.43 37.056
-15188.566 -85000.703 37.028
-15188.465 -85000.586 37.035999
-15188.357 -85004.75 37.145
-15188.363 -85000.469 37.043999
-15188.263 -85000.344 37.050999
-15188.159 -85000.227 37.058998
-15188.055 -85000.109 37.068001
-15187.604 -85005.391 37.056
-15186.821 -85006.047 37.160999
-15198.262 -85005.5 37.313999
-15198.21 -85005.352 37.224998
-15198.133 -85005.305 37.375
-15196.083 -85003.047 37.390999
-15196.038 -85002.969 37.243999
-15195.977 -85002.922 37.397999
-15195.714 -85009.297 37.334
-15195.622 -85009.195 37.244999
-15195.442 -85009.633 37.277
-15195.523 -85009.078 37.264999
-15195.416 -85008.953 37.285
-15195.315 -85008.828 37.299999
-15195.202 -85008.711 37.318001
-15195.096 -85008.594 37.334
-15194.991 -85010.031 37.358002
-15194.994 -85008.469 37.348999
-15194.89 -85008.344 37.365002
-15194.79 -85008.219 37.380001
-15194.703 -85008.117 37.277
-15194.468 -85010.469 37.280998
-15194.506 -85007.883 37.234001
-15194.345 -85007.695 37.248001
-15194.025 -85007.32 37.273998
-15193.96 -85010.906 37.367001
-15193.869 -85007.141 37.283001
-15193.704 -85006.953 37.292
-15193.427 -85013.656 37.361
-15193.597 -85006.828 37.297001
-15193.497 -85006.703 37.301998
-15193.296 -85013.469 37.297001
-15193.378 -85011.398 37.284
-15193.336 -85006.516 37.311001
-15193.148 -85013.297 37.238998
-15193.023 -85013.188 37.269001
-15193.175 -85006.328 37.319
-15193.077 -85006.203 37.323002
-15192.916 -85013.07 37.297001
-15192.835 -85012.938 37.32
-15192.975 -85006.078 37.327999
-15192.858 -85005.953 37.335999
-15192.737 -85012.812 37.346001
-15192.628 -85012.695 37.374001
-15192.729 -85011.945 37.292999
-15192.749 -85005.836 37.341999
-15192.481 -85012.547 37.223999
-15192.354 -85012.344 37.252998
-15190.649 -85006.172 37.264999
-15190.436 -85005.93 37.278999
-15190.321 -85005.805 37.287998
-15190.221 -85005.68 37.297001
-15190.098 -85005.57 37.310001
-15190.065 -85003.266 37.238998
-15190.003 -85003.117 37.244999
-15189.898 -85003 37.257999
-15189.789 -85002.883 37.271
-15189.681 -85002.766 37.284
-15189.442 -85003.781 37.344002
-15189.587 -85002.648 37.294998
-15189.474 -85002.531 37.308998
-15189.386 -85002.406 37.319
-15189.273 -85002.289 37.332001
-15189.116 -85002.109 37.349998
-15188.977 -85004.203 37.237999
-15188.886 -85001.859 37.317001
-15188.703 -85001.719 37.310001
-15188.686 -85001.219 37.382
-15188.682 -85001.125 37.290001
-15188.701 -85000.859 37.363998
-15188.601 -85001.594 37.230999
-15188.555 -85000.703 37.32
-15188.447 -85000.547 37.299999
-15188.377 -85004.727 37.332001
-15188.331 -85001.57 37.266998
-15188.388 -85000.484 37.216
-15188.297 -85000.375 37.312
-15188.185 -85000.242 37.231998
-15188.083 -85000.125 37.240002
-15187.981 -85000.008 37.248001
-15187.662 -85005.336 37.244999
-15187.007 -85005.898 37.34
-15186.169 -85006.625 37.247002
-15198.265 -85005.508 37.498001
-15198.211 -85005.359 37.500999
-15196.037 -85002.984 37.542999
-15195.706 -85009.297 37.548
-15195.551 -85009.102 37.498001
-15195.443 -85008.984 37.52
-15195.39 -85009.68 37.449001
-15195.334 -85008.852 37.460999
-15195.224 -85008.734 37.481998
-15195.119 -85008.609 37.499001
-15195.009 -85008.492 37.515999
-15194.946 -85010.062 37.532001
-15194.855 -85008.305 37.539001
-15194.701 -85008.117 37.563
-15194.516 -85010.445 37.443001
-15194.533 -85007.922 37.5
-15194.36 -85007.727 37.428001
-15194.031 -85010.859 37.528
-15193.939 -85007.227 37.462002
-15193.831 -85007.102 37.471001
-15193.674 -85006.922 37.479
-15193.462 -85011.344 37.449001
-15193.454 -85006.672 37.492001
-15193.382 -85013.641 37.557999
-15193.271 -85013.523 37.582001
-15193.225 -85013.383 37.499001
-15193.308 -85006.477 37.497002
-15193.105 -85013.281 37.43
-15193.01 -85013.156 37.451
-15193.144 -85006.297 37.507
-15192.894 -85013.039 37.48
-15192.975 -85011.766 37.528999
-15192.981 -85006.109 37.514999
-15192.877 -85005.984 37.521
-15192.798 -85012.914 37.505001
-15192.692 -85012.797 37.533001
-15192.771 -85005.859 37.526001
-15192.59 -85012.672 37.560001
-15192.482 -85012.523 37.470001
-15192.341 -85012.312 37.444
-15190.917 -85006.492 37.448002
-15190.769 -85006.297 37.455002
-15190.665 -85006.172 37.462002
-15190.546 -85006.055 37.470001
-15190.334 -85005.812 37.483002
-15190.233 -85005.68 37.488998
-15190.119 -85005.562 37.498001
-15190.036 -85003.305 37.419998
-15190.012 -85003.148 37.507
-15189.9 -85003.023 37.431
-15189.802 -85002.898 37.443001
-15189.689 -85002.781 37.457001
-15189.441 -85003.789 37.527
-15189.59 -85002.664 37.469002
-15189.491 -85002.539 37.480999
-15189.397 -85002.414 37.492001
-15189.286 -85002.305 37.505001
-15189.131 -85002.125 37.523998
-15188.996 -85004.195 37.421001
-15188.92 -85001.891 37.548
-15188.709 -85001.742 37.575001
-15188.699 -85001.234 37.557999
-15188.632 -85001.094 37.562
-15188.71 -85000.883 37.540001
-15188.41 -85004.695 37.52
-15188.553 -85000.703 37.554001
-15188.425 -85000.516 37.563999
-15188.262 -85000.344 37.578999
-15188.196 -85000.266 37.408001
-15188.109 -85000.156 37.504002
-15188 -85000.023 37.423
-15187.751 -85005.258 37.431
-15187.139 -85005.781 37.527
-15186.379 -85006.445 37.431
-15198.256 -85005.516 37.688
-15198.22 -85005.359 37.779999
-15198.161 -85005.305 37.646999
-15196.057 -85003.07 37.701
-15195.986 -85002.93 37.699001
-15195.707 -85009.312 37.706001
-15195.519 -85009.062 37.747002
-15195.329 -85009.734 37.701
-15195.357 -85008.875 37.698002
-15195.252 -85008.758 37.719002
-15195.127 -85008.633 37.662998
-15195.03 -85008.508 37.681
-15194.946 -85010.07 37.694
-15194.879 -85008.32 37.705002
-15194.661 -85008.078 37.738998
-15194.453 -85010.477 37.623001
-15194.504 -85007.898 37.763
-15194.408 -85007.766 37.778
-15194.322 -85007.672 37.672001
-15193.964 -85007.25 37.640999
-15193.847 -85007.133 37.653
-15193.695 -85006.938 37.662998
-15193.6 -85011.242 37.687
-15193.479 -85006.695 37.676998
-15193.307 -85013.648 37.771
-15193.243 -85013.5 37.778999
-15193.325 -85006.508 37.685001
-15193.224 -85006.375 37.688999
-15193.108 -85013.25 37.618999
-15193.116 -85006.258 37.695
-15193.011 -85006.133 37.700001
-15192.992 -85013.125 37.643002
-15192.897 -85012.992 37.664001
-15192.978 -85011.734 37.706001
-15192.859 -85005.938 37.707001
-15192.799 -85012.867 37.686001
-15192.693 -85012.75 37.713001
-15192.676 -85005.766 37.720001
-15192.584 -85012.625 37.741001
-15192.404 -85012.414 37.611
-15192.316 -85012.289 37.634998
-15190.922 -85006.5 37.647999
-15190.759 -85006.312 37.658001
-15190.657 -85006.188 37.662998
-15190.547 -85006.062 37.669998
-15190.233 -85005.688 37.688999
-15190.129 -85005.562 37.695
-15190.037 -85003.172 37.77
-15189.954 -85003.375 37.702999
-15189.924 -85003.039 37.694
-15189.818 -85002.922 37.705002
-15189.71 -85002.789 37.629002
-15189.42 -85003.812 37.716
-15189.599 -85002.672 37.643002
-15189.498 -85002.555 37.654999
-15189.399 -85002.438 37.667
-15189.286 -85002.32 37.681
-15189.004 -85004.195 37.608002
-15189.141 -85002.141 37.699001
-15188.92 -85001.906 37.726002
-15188.733 -85001.742 37.75
-15188.697 -85001.25 37.735001
-15188.733 -85000.891 37.713001
-15188.465 -85004.656 37.705002
-15188.586 -85001.133 37.748001
-15188.562 -85000.719 37.731998
-15188.431 -85000.531 37.742001
-15188.33 -85000.414 37.750999
-15188.225 -85000.297 37.761002
-15188.054 -85000.094 37.716
-15187.839 -85005.188 37.616001
-15187.266 -85005.68 37.713001
-15186.514 -85006.312 37.624001
-15198.257 -85005.5 37.919998
-15198.14 -85005.305 37.937
-15196.029 -85002.992 37.852001
-15195.712 -85009.414 37.859001
-15195.695 -85009.258 37.865002
-15195.521 -85009.078 37.905998
-15195.314 -85009.75 37.942001
-15195.385 -85008.891 37.937
-15195.261 -85008.781 37.962002
-15195.154 -85008.648 37.902
-15195.043 -85008.523 37.841999
-15194.936 -85010.078 37.856998
-15194.893 -85008.344 37.872002
-15194.682 -85008.094 37.907001
-15194.521 -85007.914 37.932999
-15194.419 -85007.789 37.948002
-15194.232 -85010.57 37.914001
-15194.218 -85007.539 37.979
-15194.197 -85007.523 37.806
-15193.868 -85007.148 37.834999
-15193.615 -85011.203 37.941002
-15193.759 -85007.031 37.844002
-15193.651 -85006.906 37.853001
-15193.494 -85006.719 37.866001
-15193.279 -85006.469 37.879002
-15193.087 -85013.219 37.813999
-15193.119 -85006.281 37.887001
-15193.02 -85006.156 37.890999
-15192.977 -85013.445 37.830002
-15192.983 -85013.094 37.835999
-15192.837 -85012.984 37.866001
-15192.922 -85011.727 37.891998
-15192.949 -85006.016 37.889
-15192.811 -85005.906 37.901001
-15192.719 -85012.867 37.890999
-15192.702 -85005.781 37.907001
-15192.244 -85012.625 37.811001
-15192.312 -85012.484 37.894001
-15192.277 -85012.266 37.823002
-15190.922 -85006.508 37.853001
-15190.767 -85006.312 37.860001
-15190.654 -85006.195 37.867001
-15190.552 -85006.062 37.872002
-15190.451 -85005.938 37.876999
-15190.231 -85005.695 37.891998
-15190.125 -85005.57 37.897999
-15189.937 -85003.234 37.970001
-15189.812 -85003.117 37.986
-15189.711 -85002.906 37.903
-15189.617 -85002.68 37.817001
-15189.431 -85003.805 37.900002
-15189.455 -85002.508 37.838001
-15189.3 -85002.328 37.855999
-15189.192 -85002.211 37.869999
-15189.083 -85002.094 37.883999
-15188.989 -85004.203 37.895
-15188.947 -85001.906 37.898998
-15188.726 -85001.758 37.931
-15188.674 -85001.273 37.917
-15188.676 -85000.859 37.896999
-15188.48 -85004.633 37.896999
-15188.582 -85001.148 37.926998
-15188.535 -85000.672 37.910999
-15188.441 -85000.547 37.919998
-15188.347 -85000.422 37.928001
-15188.231 -85000.312 37.939999
-15188.078 -85000.141 37.953999
-15187.94 -85005.094 37.898998
-15187.372 -85005.586 37.901001
-15186.855 -85006.031 37.993999
-15186.681 -85006.172 37.811001
-15198.265 -85005.484 38.056999
-15198.248 -85005.398 38.196999
-15198.191 -85005.352 38.068001
-15196.052 -85003.062 38.014
-15196.016 -85002.984 38.171001
-15195.987 -85002.922 38.008999
-15195.713 -85009.43 38.095001
-15195.707 -85009.266 38.097
-15195.533 -85009.094 38.060001
-15195.325 -85009.75 38.099998
-15195.372 -85008.906 38.098999
-15195.269 -85008.789 38.123001
-15195.167 -85008.664 38.146
-15195.056 -85008.547 38.087002
-15194.949 -85010.07 38.098
-15194.957 -85008.414 38.105999
-15194.848 -85008.297 38.046001
-15194.686 -85008.109 38.077999
-15194.482 -85007.867 38.112
-15194.197 -85007.57 38.158001
-15193.626 -85011.172 38.111
-15193.776 -85007.047 38.028999
-15193.666 -85006.93 38.039001
-15193.51 -85006.734 38.050999
-15193.3 -85006.484 38.068001
-15193.048 -85013.914 38.057999
-15193.146 -85006.297 38.077
-15193.032 -85006.172 38.084
-15192.822 -85013.844 38.088001
-15192.938 -85006.047 38.085999
-15192.825 -85005.922 38.092999
-15192.717 -85013.711 38.094002
-15192.727 -85005.797 38.097
-15192.438 -85013.656 38.132999
-15192.221 -85012.414 38.007
-15192.3 -85012.32 38.174999
-15190.873 -85006.445 38.061001
-15190.769 -85006.32 38.066002
-15190.654 -85006.195 38.073002
-15190.549 -85006.07 38.077999
-15190.456 -85005.938 38.081001
-15190.327 -85005.82 38.091
-15190.116 -85005.57 38.104
-15189.982 -85003.227 38.146999
-15189.681 -85003.523 38.029999
-15189.583 -85002.883 38.014
-15189.474 -85002.766 38.026001
-15189.469 -85002.516 38.014
-15189.392 -85003.828 38.097
-15189.333 -85002.32 38.028
-15189.225 -85002.203 38.042
-15189.03 -85004.172 38.179001
-15189.053 -85002.117 38.069
-15188.903 -85002.016 38.091
-15188.732 -85001.766 38.110001
-15188.634 -85001.305 38.105
-15188.688 -85000.859 38.071999
-15188.523 -85004.602 38.088001
-15188.592 -85001.156 38.104
-15188.554 -85000.672 38.084999
-15188.447 -85000.555 38.098
-15188.351 -85000.438 38.108002
-15188.243 -85000.32 38.118999
-15188.065 -85005 38.182999
-15188.09 -85000.141 38.132999
-15187.467 -85005.5 38.092999
-15186.987 -85005.922 38.188
-15186.309 -85006.5 38.094002
-15198.229 -85005.609 38.359001
-15198.266 -85005.5 38.27
-15198.164 -85005.328 38.356998
-15196.041 -85003.047 38.337002
-15195.681 -85009.453 38.351002
-15195.732 -85009.273 38.334999
-15195.537 -85009.094 38.297001
-15195.344 -85009.742 38.262001
-15195.374 -85008.914 38.257
-15195.281 -85008.789 38.278999
-15195.172 -85008.672 38.306
-15195.062 -85008.555 38.332001
-15194.956 -85010.062 38.353001
-15194.962 -85008.43 38.355
-15194.857 -85008.305 38.292999
-15194.715 -85008.148 38.293999
-15194.502 -85007.875 38.280998
-15194.309 -85010.672 38.324001
-15194.21 -85007.578 38.332001
-15193.948 -85007.516 38.297001
-15193.608 -85011.32 38.292999
-15193.641 -85011.141 38.285999
-15193.792 -85007.062 38.216
-15193.684 -85006.938 38.226002
-15193.588 -85006.812 38.231998
-15193.47 -85006.695 38.243999
-15193.306 -85006.508 38.257999
-15193.154 -85006.312 38.269001
-15193.047 -85006.188 38.277
-15192.805 -85013.984 38.338001
-15192.955 -85006.062 38.279999
-15192.835 -85005.938 38.287998
-15192.729 -85005.82 38.293999
-15192.573 -85013.734 38.355
-15192.305 -85012.273 38.368
-15191.877 -85012.695 38.254002
-15190.864 -85006.453 38.271999
-15190.768 -85006.32 38.275002
-15190.66 -85006.195 38.280998
-15190.559 -85006.062 38.285
-15190.44 -85005.945 38.292999
-15190.336 -85005.82 38.298
-15190.109 -85005.57 38.312
-15189.389 -85003.836 38.292
-15189.383 -85003.664 38.282001
-15189.018 -85004.172 38.380001
-15189.103 -85003.453 38.316002
-15188.994 -85003.328 38.328999
-15188.893 -85003.203 38.34
-15188.786 -85003.086 38.353001
-15188.747 -85001.758 38.287998
-15188.605 -85001.328 38.292
-15188.692 -85000.875 38.25
-15188.568 -85004.562 38.280998
-15188.529 -85002.867 38.387001
-15188.591 -85001.164 38.285999
-15188.559 -85000.688 38.263
-15188.459 -85000.562 38.273998
-15188.35 -85000.445 38.287998
-15188.256 -85000.328 38.298
-15188.096 -85004.961 38.384998
-15188.147 -85000.211 38.311001
-15188.054 -85000.086 38.319
-15187.584 -85005.406 38.283001
-15187.129 -85005.805 38.377998
-15186.478 -85006.359 38.286999
-15198.273 -85005.5 38.483002
-15198.222 -85005.359 38.488998
-15196.023 -85002.953 38.493
-15195.69 -85009.461 38.521
-15195.729 -85009.281 38.506001
-15195.546 -85009.109 38.543999
-15195.332 -85009.758 38.438
-15195.381 -85008.922 38.494999
-15195.284 -85008.797 38.438
-15195.172 -85008.68 38.466
-15195.061 -85008.555 38.493
-15194.956 -85010.062 38.529999
-15194.955 -85008.438 38.519001
-15194.865 -85008.312 38.541
-15194.683 -85008.117 38.525002
-15194.497 -85007.883 38.450001
-15194.302 -85010.656 38.507
-15194.229 -85007.578 38.506001
-15193.945 -85007.531 38.566002
-15193.929 -85007.367 38.561001
-15193.662 -85011.109 38.466999
-15193.697 -85006.961 38.500999
-15193.576 -85011.312 38.486
-15193.587 -85006.836 38.424999
-15193.473 -85006.711 38.436001
-15193.316 -85006.516 38.449001
-15193.17 -85006.328 38.459
-15193.058 -85006.203 38.467999
-15192.995 -85011.758 38.421001
-15192.962 -85006.078 38.474998
-15192.85 -85005.953 38.484001
-15192.729 -85005.836 38.493999
-15192.189 -85012.445 38.588001
-15191.985 -85012.594 38.431
-15190.868 -85006.445 38.481998
-15190.767 -85006.32 38.486
-15190.659 -85006.188 38.492001
-15190.549 -85006.07 38.498001
-15190.441 -85005.938 38.502998
-15190.335 -85005.812 38.508999
-15190.233 -85005.688 38.513
-15189.389 -85003.828 38.488998
-15189.294 -85003.703 38.495998
-15189.207 -85003.57 38.501999
-15189.057 -85004.148 38.573002
-15189.098 -85003.453 38.513
-15189.001 -85003.32 38.521
-15188.886 -85003.203 38.534
-15188.613 -85004.531 38.474998
-15188.766 -85003.086 38.549
-15188.762 -85001.758 38.467999
-15188.622 -85001.32 38.470001
-15188.617 -85001.156 38.460999
-15188.706 -85000.875 38.426998
-15188.546 -85002.93 38.580002
-15188.406 -85002.75 38.403
-15188.344 -85002.688 38.507
-15188.183 -85004.891 38.575001
-15188.162 -85002.523 38.435001
-15187.64 -85005.352 38.485001
-15187.194 -85005.734 38.583
-15186.617 -85006.234 38.484001
-15198.275 -85005.523 38.722
-15198.27 -85005.398 38.619999
-15198.19 -85005.312 38.782001
-15197.876 -85005.055 38.709999
-15196.053 -85003.008 38.66
-15195.662 -85009.477 38.702
-15195.738 -85009.289 38.676998
-15195.55 -85009.109 38.716
-15195.33 -85009.75 38.702999
-15195.4 -85008.914 38.744999
-15195.275 -85008.797 38.687
-15195.168 -85008.672 38.710999
-15195.066 -85008.555 38.653999
-15194.989 -85010.039 38.701
-15194.956 -85008.438 38.681
-15194.857 -85008.312 38.705002
-15194.634 -85010.336 38.792
-15194.698 -85008.125 38.744999
-15194.514 -85007.906 38.674
-15194.254 -85010.656 38.701
-15194.327 -85007.711 38.655998
-15194.227 -85007.586 38.676998
-15194.08 -85007.477 38.709
-15194.004 -85007.352 38.723
-15193.878 -85010.969 38.792999
-15193.598 -85011.273 38.669998
-15193.595 -85006.844 38.698002
-15193.486 -85006.719 38.625
-15193.229 -85013.539 38.720001
-15193.333 -85006.531 38.639999
-15193.112 -85011.633 38.780998
-15193.115 -85006.281 38.659
-15192.946 -85011.742 38.624001
-15192.977 -85006.086 38.667
-15192.846 -85005.969 38.681999
-15192.74 -85005.844 38.689999
-15192.529 -85012.078 38.714001
-15192.226 -85012.375 38.779999
-15190.856 -85006.438 38.699001
-15190.756 -85006.312 38.702
-15190.65 -85006.188 38.707001
-15190.54 -85006.062 38.713001
-15190.438 -85005.938 38.716999
-15190.336 -85005.805 38.721001
-15190.221 -85005.688 38.729
-15189.393 -85003.82 38.686001
-15189.298 -85003.695 38.694
-15189.11 -85004.109 38.764999
-15189.145 -85003.508 38.708
-15188.992 -85003.32 38.721001
-15188.882 -85003.203 38.731998
-15188.644 -85004.492 38.674
-15188.756 -85003.086 38.747002
-15188.753 -85001.758 38.654999
-15188.648 -85001.312 38.646999
-15188.635 -85001.156 38.639999
-15188.715 -85000.875 38.696999
-15188.548 -85002.922 38.773998
-15188.25 -85004.836 38.772999
-15188.346 -85002.68 38.700001
-15188.152 -85002.516 38.630001
-15187.75 -85005.258 38.675999
-15187.322 -85005.625 38.777
-15187.211 -85001.273 38.740002
-15187.076 -85001.094 38.754002
-15186.918 -85000.914 38.773998
-15186.813 -85000.797 38.785999
-15186.744 -85006.117 38.681999
-15186.715 -85000.68 38.797001
-15186.22 -85000.094 38.647999
-15198.261 -85005.625 38.925999
-15198.272 -85005.477 38.914001
-15198.207 -85005.344 38.924999
-15196.257 -85003.141 38.962002
-15196.036 -85003.07 38.84
-15196.05 -85002.891 38.978001
-15195.9 -85002.695 38.987999
-15195.655 -85009.477 38.888
-15195.729 -85009.289 38.855999
-15195.614 -85009.172 38.877998
-15195.747 -85002.555 38.921001
-15195.494 -85009.047 38.902
-15195.343 -85009.742 38.991001
-15195.385 -85008.922 38.924
-15195.272 -85008.797 38.946999
-15195.013 -85010.023 38.883999
-15195.163 -85008.672 38.969002
-15195.061 -85008.547 38.903999
-15194.958 -85008.43 38.844002
-15194.849 -85008.312 38.870998
-15194.689 -85010.305 38.986
-15194.7 -85008.125 38.909
-15194.475 -85007.867 38.909
-15194.321 -85010.617 38.879002
-15194.334 -85007.703 38.910999
-15194.232 -85007.586 38.847
-15194.13 -85007.461 38.868999
-15194.026 -85007.336 38.890999
-15193.97 -85010.906 38.984001
-15193.919 -85007.219 38.914001
-15193.563 -85011.258 38.876999
-15193.598 -85006.852 38.971001
-15193.498 -85006.727 38.895
-15193.236 -85013.5 38.985001
-15193.207 -85011.562 38.978001
-15193.332 -85006.539 38.831001
-15193.115 -85006.297 38.856998
-15192.967 -85006.102 38.867001
-15192.859 -85005.977 38.876999
-15192.751 -85011.945 38.870998
-15192.748 -85005.852 38.886002
-15192.357 -85012.273 38.977001
-15190.848 -85006.43 38.917
-15190.743 -85006.305 38.922001
-15190.643 -85006.18 38.924999
-15190.533 -85006.055 38.931
-15190.424 -85005.93 38.937
-15190.322 -85005.805 38.939999
-15190.204 -85005.68 38.948002
-15190.03 -85005.578 38.969002
-15189.387 -85003.82 38.893002
-15189.29 -85003.688 38.897999
-15189.118 -85004.094 38.973999
-15189.139 -85003.5 38.91
-15188.969 -85003.32 38.926998
-15188.867 -85003.195 38.936001
-15188.7 -85004.453 38.874001
-15188.744 -85003.078 38.951
-15188.732 -85001.766 38.848999
-15188.638 -85001.312 38.834
-15188.63 -85001.156 38.825001
-15188.714 -85000.875 38.973999
-15188.535 -85002.914 38.978001
-15188.316 -85004.781 38.977001
-15188.336 -85002.672 38.897999
-15187.839 -85005.188 38.876999
-15187.419 -85005.539 38.984001
-15187.208 -85001.258 38.933998
-15187.066 -85001.078 38.950001
-15186.918 -85005.984 38.875999
-15186.919 -85000.891 38.967999
-15186.847 -85000.766 38.973
-15186.704 -85000.664 38.994999
-15186.612 -85000.555 38.810001
-15186.512 -85000.438 38.82
-15186.412 -85000.32 38.828999
-15186.256 -85000.141 38.844002
-15185.593 -85003.352 38.955002
-15198.272 -85005.508 39.064999
-15198.255 -85005.367 39.060001
-15196.308 -85003.242 39.136002
-15196.261 -85003.109 39.129002
-15196.068 -85002.922 39.153
-15195.93 -85002.734 39.159
-15195.829 -85002.602 39.166
-15195.654 -85009.484 39.098999
-15195.741 -85009.289 39.053001
-15195.613 -85009.164 39.063999
-15195.473 -85009.703 39.171001
-15195.511 -85009.039 39.077
-15195.426 -85008.906 39.091
-15195.245 -85008.719 39.129002
-15195.036 -85010.008 39.092999
-15195.13 -85008.523 39.147999
-15195.066 -85008.383 39.158001
-15194.839 -85010.242 39.166
-15194.951 -85008.422 39.012001
-15194.909 -85008.281 39.105999
-15194.924 -85008.109 39.181999
-15194.86 -85007.977 39.196999
-15194.689 -85008.117 39.077
-15194.567 -85007.922 39.108002
-15194.463 -85007.727 39.132999
-15194.368 -85010.578 39.088001
-15194.286 -85007.547 39.091
-15194.262 -85007.328 39.178001
-15194.147 -85010.828 39.164001
-15194.12 -85007.461 39.044998
-15194.022 -85007.336 39.064999
-15194.156 -85007.125 39.198002
-15193.918 -85007.211 39.088001
-15193.65 -85011.195 39.082001
-15193.427 -85011.445 39.155998
-15193.593 -85006.695 39.146999
-15193.49 -85006.484 39.158001
-15193.381 -85006.609 39.007
-15193.284 -85006.477 39.021
-15193.377 -85006.289 39.171001
-15193.256 -85006.094 39.186001
-15193.121 -85006.297 39.048
-15193.186 -85005.875 39.188
-15192.866 -85011.859 39.077
-15192.969 -85006.109 39.067001
-15192.891 -85005.969 39.069
-15192.619 -85012.125 39.153999
-15192.757 -85005.852 39.084999
-15192.515 -85005.773 39.129002
-15192.57 -85005.594 39.095001
-15190.863 -85006.328 39.120998
-15190.72 -85006.133 39.125
-15190.616 -85006 39.130001
-15190.508 -85005.883 39.134998
-15190.409 -85005.75 39.138
-15190.294 -85005.625 39.145
-15190.191 -85005.5 39.148998
-15189.386 -85003.812 39.103001
-15189.288 -85003.68 39.108002
-15189.171 -85004.055 39.174
-15189.137 -85003.484 39.116001
-15188.972 -85003.305 39.129002
-15188.862 -85003.18 39.139999
-15188.748 -85004.406 39.077999
-15188.731 -85003.07 39.157001
-15188.613 -85002.945 39.169998
-15188.66 -85001.305 39.018002
-15188.625 -85001.156 39.013
-15188.725 -85000.875 39.159
-15188.525 -85002.82 39.175999
-15188.408 -85002.703 39.188999
-15188.38 -85004.727 39.181999
-15188.287 -85002.594 39.102001
-15187.904 -85005.125 39.085999
-15187.556 -85005.438 39.181
-15187.022 -85005.891 39.085999
-15187.198 -85001.242 39.130001
-15187.091 -85001.125 39.145
-15186.978 -85001.008 39.160999
-15186.888 -85000.883 39.171001
-15186.73 -85000.703 39.189999
-15186.548 -85000.484 39.014
-15186.368 -85000.312 39.037998
-15186.249 -85000.203 39.053001
-15186.148 -85000.086 39.062
-15185.716 -85003.242 39.138
-15199.688 -85006.102 39.308998
-15199.642 -85005.977 39.389999
-15199.544 -85006.25 39.292999
-15199.537 -85005.875 39.276001
-15198.273 -85005.5 39.333
-15198.285 -85005.328 39.282001
-15196.426 -85003.258 39.265999
-15196.236 -85009.469 39.390999
-15196.239 -85009.305 39.362999
-15196.344 -85003.125 39.273998
-15196.033 -85009.367 39.208
-15196.11 -85009.188 39.375
-15196.131 -85003.023 39.326
-15195.864 -85009.742 39.303001
-15195.983 -85009.547 39.245998
-15195.913 -85009.242 39.216999
-15195.943 -85009.07 39.291
-15195.878 -85008.93 39.390999
-15195.688 -85008.906 39.219002
-15195.772 -85008.797 39.396
-15195.429 -85009.875 39.206001
-15195.566 -85008.695 39.226002
-15195.462 -85008.57 39.244999
-15195.221 -85010.273 39.307999
-15195.376 -85010.055 39.243
-15195.366 -85008.445 39.263
-15195.267 -85008.312 39.282001
-15195.135 -85008.117 39.306999
-15195.005 -85007.922 39.330002
-15194.807 -85007.836 39.209
-15194.908 -85007.797 39.348999
-15194.728 -85010.609 39.238998
-15194.79 -85010.422 39.201
-15194.75 -85007.695 39.306
-15194.63 -85007.586 39.252998
-15194.588 -85010.82 39.298
-15194.535 -85007.461 39.277
-15194.45 -85007.328 39.299
-15194.314 -85007.141 39.331001
-15194.062 -85011.109 39.216999
-15194.126 -85006.969 39.286999
-15193.881 -85011.422 39.294998
-15193.809 -85006.617 39.269001
-15193.717 -85006.492 39.286999
-15193.615 -85006.359 39.304001
-15193.529 -85006.234 39.314999
-15193.412 -85006.117 39.335999
-15193.267 -85011.844 39.235001
-15193.329 -85011.648 39.200001
-15193.312 -85005.984 39.351002
-15193.099 -85012.07 39.296001
-15193.19 -85005.867 39.373001
-15193.038 -85005.766 39.212002
-15192.928 -85005.633 39.222
-15192.829 -85005.508 39.228001
-15192.767 -85005.367 39.224998
-15192.48 -85012.523 39.224998
-15192.505 -85012.344 39.200001
-15191.144 -85006.281 39.275002
-15191.05 -85006.156 39.280998
-15190.935 -85006.031 39.291
-15190.837 -85005.898 39.293999
-15190.675 -85005.711 39.301998
-15190.513 -85005.523 39.310001
-15190.412 -85005.398 39.313999
-15190.317 -85005.266 39.314999
-15189.213 -85004.023 39.379002
-15189.335 -85003.734 39.319
-15189.123 -85003.484 39.331001
-15188.821 -85004.359 39.278
-15188.967 -85003.289 39.341
-15188.847 -85003.172 39.351002
-15188.746 -85003.047 39.359001
-15188.638 -85002.922 39.368999
-15188.637 -85001.305 39.216
-15188.621 -85001.148 39.206001
-15188.715 -85000.875 39.352001
-15188.472 -85004.656 39.381001
-15188.479 -85002.734 39.383999
-15188.204 -85002.445 39.208
-15188.018 -85005.039 39.284
-15188.091 -85002.328 39.222
-15187.996 -85002.203 39.231998
-15187.629 -85005.359 39.393002
-15187.748 -85001.891 39.258999
-15187.185 -85005.766 39.282001
-15187.174 -85001.227 39.332001
-15187.073 -85001.102 39.345001
-15186.914 -85000.922 39.367001
-15186.759 -85006.109 39.395
-15186.711 -85000.688 39.393002
-15186.523 -85000.469 39.215
-15186.359 -85000.297 39.237
-15186.263 -85000.172 39.248001
-15186.175 -85000.047 39.257
-15185.844 -85003.133 39.323002
-15185.295 -85003.586 39.238998
-15199.666 -85006.266 39.446999
-15198.271 -85005.516 39.556
-15198.235 -85005.305 39.542
-15196.054 -85003.07 39.523998
-15195.988 -85002.938 39.527
-15195.629 -85008.68 39.411999
-15195.497 -85008.555 39.424
-15193.04 -85005.758 39.403
-15189.238 -85003.992 39.591
-15189.324 -85003.711 39.535
-15189.104 -85003.469 39.550999
-15188.871 -85004.312 39.485001
-15188.94 -85003.281 39.563
-15188.833 -85003.156 39.57
-15188.727 -85003.031 39.576
-15188.626 -85002.906 39.582001
-15188.617 -85001.141 39.498001
-15188.748 -85000.93 39.544998
-15188.535 -85004.602 39.59
-15188.51 -85002.781 39.592999
-15188.578 -85001.312 39.424999
-15188.263 -85002.492 39.405998
-15188.114 -85004.961 39.487
-15188.103 -85002.305 39.421001
-15187.997 -85002.18 39.431999
-15187.779 -85005.258 39.589001
-15187.786 -85001.938 39.457001
-15187.269 -85005.68 39.495998
-15187.104 -85001.141 39.541
-15186.895 -85000.906 39.569
-15186.746 -85000.719 39.589001
-15186.56 -85000.508 39.411999
-15186.45 -85000.391 39.425999
-15186.349 -85000.266 39.438
-15186.246 -85000.148 39.451
-15186.148 -85000.031 39.462002
-15185.98 -85003.023 39.505001
-15185.648 -85003.32 39.594002
-15185.472 -85003.453 39.417
-15185.204 -85003.734 39.487999
-15198.603 -85005.141 39.737999
-15198.713 -85004.984 39.678001
-15198.277 -85005.531 39.73
-15198.351 -85005.305 39.673
-15196.014 -85002.961 39.692001
-15195.936 -85003.117 39.740002
-15190.002 -85003.211 39.754002
-15189.942 -85003.391 39.794998
-15189.887 -85003.086 39.762001
-15189.804 -85002.953 39.761002
-15189.69 -85002.828 39.77
-15189.457 -85003.727 39.730999
-15189.479 -85003.562 39.702
-15189.473 -85003.398 39.681
-15189.593 -85002.703 39.773998
-15189.497 -85002.57 39.778
-15189.315 -85003.938 39.792999
-15189.395 -85003.266 39.68
-15189.321 -85003.133 39.678001
-15189.229 -85003 39.681
-15189.393 -85002.445 39.784
-15189.293 -85002.32 39.789001
-15189.146 -85002.867 39.681
-15189.072 -85002.727 39.68
-15189.18 -85002.195 39.798
-15188.926 -85004.266 39.694
-15188.943 -85002.531 39.681999
-15188.805 -85002.336 39.688
-15188.621 -85004.531 39.796001
-15188.688 -85002.141 39.692001
-15188.627 -85001.281 39.609001
-15188.623 -85001.109 39.794998
-15188.68 -85000.859 39.752998
-15188.412 -85002.656 39.601002
-15188.529 -85001.875 39.699001
-15188.498 -85000.68 39.778
-15188.412 -85000.555 39.785
-15188.26 -85002.469 39.615002
-15188.4 -85001.672 39.706001
-15188.365 -85001.523 39.696999
-15188.349 -85000.906 39.637001
-15188.325 -85000.422 39.792999
-15188.197 -85004.891 39.696999
-15188.115 -85002.273 39.625999
-15188.011 -85002.148 39.636002
-15188.079 -85000.836 39.694
-15188.039 -85000.688 39.688999
-15187.878 -85005.172 39.799
-15187.937 -85002.016 39.638
-15187.834 -85001.891 39.647999
-15187.937 -85001.695 39.605999
-15187.941 -85000.484 39.692001
-15187.848 -85000.281 39.694
-15187.747 -85000.078 39.700001
-15187.409 -85005.57 39.700001
-15187.392 -85001.094 39.674999
-15187.321 -85000.875 39.672001
-15187.214 -85000.68 39.68
-15187.135 -85000.469 39.681
-15187.071 -85000.258 39.678001
-15187.026 -85000.117 39.675999
-15186.888 -85006 39.604
-15186.651 -85000.594 39.601002
-15186.55 -85000.477 39.613998
-15186.454 -85000.352 39.625999
-15186.366 -85000.227 39.634998
-15186.281 -85000.102 39.643002
-15185.542 -85003.531 39.631001
-15198.242 -85005.617 39.962002
-15198.307 -85005.461 39.903999
-15198.241 -85005.328 39.894001
-15196.029 -85002.977 39.865002
-15190.057 -85003.18 39.957001
-15189.944 -85003.055 39.964001
-15189.843 -85002.922 39.967999
-15189.651 -85003.641 39.900002
-15189.675 -85002.734 39.978001
-15189.459 -85002.484 39.992001
-15189.01 -85004.203 39.897999
-15189.086 -85002.07 39.801998
-15188.921 -85001.883 39.817001
-15188.761 -85001.695 39.833
-15188.651 -85001.57 39.844002
-15188.67 -85001.25 39.800999
-15188.648 -85001.086 39.993999
-15188.737 -85000.898 39.949001
-15188.608 -85000.781 39.965
-15188.548 -85001.445 39.854
-15188.52 -85000.656 39.971001
-15188.409 -85000.531 39.985001
-15188.298 -85004.812 39.903
-15188.314 -85000.406 39.994999
-15188.223 -85000.297 39.804001
-15188.076 -85000.117 39.82
-15187.526 -85005.469 39.909
-15187.039 -85005.883 39.810001
-15198.309 -85005.469 40.112999
-15198.231 -85005.344 40.106998
-15198.196 -85005.625 40.189999
-15196.033 -85002.984 40.043999
-15190.031 -85003.164 40.186001
-15189.979 -85003.359 40.005001
-15189.929 -85003.031 40.189999
-15189.69 -85003.602 40.112999
-15189.369 -85003.891 40.002998
-15189.307 -85002.297 40
-15189.083 -85004.148 40.106998
-15189.128 -85002.109 40.016998
-15188.97 -85001.922 40.026001
-15188.874 -85001.797 40.029999
-15188.688 -85004.477 40.008999
-15188.774 -85001.672 40.036999
-15188.657 -85001.547 40.050999
-15188.692 -85001.227 40.000999
-15188.68 -85001.047 40.193001
-15188.731 -85000.883 40.157001
-15188.452 -85001.453 40.089001
-15188.541 -85000.703 40.181999
-15188.402 -85000.508 40.191002
-15188.391 -85004.734 40.112
-15188.195 -85000.289 40.012001
-15188.079 -85000.172 40.027
-15187.956 -85005.094 40.014999
-15187.994 -85000.039 40.034
-15187.628 -85005.375 40.124001
-15187.168 -85005.766 40.021
-15198.293 -85005.477 40.333
-15198.262 -85005.336 40.308998
-15196.035 -85002.984 40.304001
-15189.993 -85003.328 40.223
-15189.805 -85002.914 40.200001
-15189.735 -85003.562 40.326
-15189.692 -85002.789 40.207001
-15189.592 -85002.656 40.210999
-15189.475 -85002.531 40.219002
-15189.381 -85003.859 40.227001
-15189.362 -85002.406 40.227001
-15189.273 -85002.281 40.228001
-15189.139 -85004.086 40.321999
-15189.102 -85002.094 40.242001
-15188.935 -85001.906 40.254002
-15188.784 -85004.398 40.214001
-15188.705 -85001.109 40.300999
-15188.71 -85000.859 40.373001
-15188.485 -85004.656 40.323002
-15188.529 -85000.68 40.395
-15188.287 -85000.391 40.205002
-15188.073 -85005.008 40.222
-15188.186 -85000.266 40.216
-15187.982 -85000.094 40.248001
-15187.774 -85005.266 40.327
-15187.321 -85005.648 40.227001
-15198.297 -85005.469 40.551998
-15198.273 -85005.336 40.522999
-15198.322 -85005.188 40.466999
-15198.142 -85005.633 40.426998
-15196.029 -85002.969 40.570999
-15190.063 -85003.281 40.429001
-15190.014 -85003.141 40.416
-15189.802 -85003.508 40.535999
-15189.904 -85003.016 40.422001
-15189.8 -85002.883 40.425999
-15189.684 -85002.758 40.433998
-15189.418 -85003.805 40.446999
-15189.572 -85002.633 40.441002
-15189.474 -85002.508 40.444
-15189.222 -85004.016 40.530998
-15189.303 -85002.32 40.455002
-15189.08 -85002.062 40.469002
-15188.858 -85004.328 40.428001
-15188.922 -85001.875 40.479
-15188.639 -85001.188 40.438999
-15188.771 -85000.969 40.594002
-15188.567 -85004.578 40.537998
-15188.382 -85000.484 40.407001
-15188.266 -85000.367 40.421001
-15188.177 -85004.914 40.433998
-15188.163 -85000.242 40.43
-15187.886 -85005.164 40.540001
-15187.986 -85000.133 40.462002
-15187.442 -85005.539 40.441002
-15198.754 -85006.289 40.673
-15198.519 -85005.172 40.611
-15198.239 -85005.617 40.623001
-15198.31 -85005.461 40.794998
-15198.309 -85005.32 40.743999
-15196.066 -85002.945 40.735001
-15195.949 -85003.102 40.707001
-15190.062 -85003.242 40.658001
-15189.982 -85003.109 40.654999
-15189.873 -85002.984 40.66
-15189.779 -85002.859 40.660999
-15189.654 -85002.734 40.672001
-15189.482 -85003.742 40.660999
-15189.556 -85002.609 40.674
-15189.438 -85002.484 40.682999
-15189.305 -85003.945 40.743
-15189.281 -85002.289 40.688999
-15189.115 -85002.102 40.699001
-15189.005 -85001.977 40.706001
-15188.941 -85004.258 40.641998
-15188.895 -85001.844 40.712002
-15188.649 -85004.492 40.756001
-15188.662 -85001.297 40.68
-15188.659 -85000.844 40.603001
-15188.59 -85001.164 40.675999
-15188.57 -85000.711 40.606998
-15188.461 -85000.586 40.618
-15188.267 -85004.828 40.651001
-15188.35 -85000.461 40.630001
-15188.255 -85000.336 40.637001
-15188.109 -85000.219 40.66
-15188.006 -85000.094 40.668999
-15187.985 -85005.07 40.758999
-15187.593 -85005.422 40.647999
-15198.32 -85005.602 40.842999
-15195.989 -85003.055 40.956001
-15189.647 -85003.5 40.817001
-15189.379 -85003.875 40.959
-15189.38 -85003.727 40.93
-15189.03 -85004.18 40.855
-15188.685 -85001.25 40.898998
-15188.608 -85001.117 40.896
-15188.681 -85000.875 40.833
-15188.533 -85000.68 40.84
-15188.433 -85000.555 40.845001
-15188.371 -85004.734 40.865002
-15188.33 -85000.43 40.852001
-15188.226 -85000.305 40.862
-15188.067 -85004.977 40.983002
-15187.999 -85000.055 40.888
-15187.703 -85005.312 40.866001
-15198.261 -85005.516 41.097
-15198.228 -85005.312 41.032001
-15196.027 -85003.023 41.119999
-15189.388 -85003.82 41.195
-15189.302 -85003.688 41.195999
-15189.216 -85003.555 41.194
-15189.121 -85004.094 41.069
-15188.679 -85001.125 41.116001
-15188.746 -85000.891 41.051998
-15188.49 -85004.633 41.076
-15188.568 -85000.703 41.069
-15188.448 -85000.508 41.066002
-15188.214 -85004.867 41.186001
-15187.795 -85005.211 41.091
-15198.279 -85005.5 41.353001
-15196.017 -85003.242 41.351002
-15196.024 -85002.977 41.304001
-15189.203 -85004.016 41.280998
-15189.087 -85003.43 41.206001
-15188.985 -85003.305 41.208
-15188.865 -85003.18 41.216999
-15188.637 -85003.086 41.261002
-15188.653 -85001.156 41.374001
-15188.718 -85000.922 41.306
-15188.55 -85002.953 41.258999
-15188.336 -85002.695 41.268002
-15188.205 -85002.578 41.280998
-15187.961 -85005.086 41.286999
-15186.585 -85000.531 41.362
-15198.283 -85005.391 41.592999
-15196.037 -85003.07 41.521999
-15189.302 -85003.93 41.487999
-15189.312 -85003.703 41.444
-15189.069 -85004.133 41.591999
-15189.144 -85003.508 41.459
-15189.027 -85003.383 41.470001
-15188.939 -85003.25 41.469002
-15188.829 -85003.125 41.473999
-15188.613 -85003.023 41.514999
-15188.608 -85001.312 41.419998
-15188.758 -85000.938 41.546001
-15188.697 -85000.797 41.535999
-15188.496 -85002.898 41.521999
-15188.33 -85002.703 41.529999
-15186.762 -85000.719 41.59
-15198.263 -85005.523 41.657001
-15196.06 -85003.016 41.716999
-15189.371 -85003.844 41.707001
-15189.317 -85003.703 41.696999
-15189.154 -85003.516 41.710999
-15188.822 -85004.336 41.701
-15188.987 -85003.32 41.726002
-15188.887 -85003.195 41.731998
-15188.762 -85003.07 41.745998
-15188.66 -85001.25 41.643002
-15188.628 -85001.109 41.623001
-15188.743 -85000.875 41.792999
-15188.518 -85002.898 41.780998
-15188.357 -85002.703 41.787998
-15188.246 -85002.578 41.792999
-15186.808 -85002.289 41.611
-15186.643 -85000.594 41.601002
-15186.541 -85000.469 41.609001
-15186.444 -85000.336 41.616001
-15186.335 -85000.219 41.627998
-15186.231 -85000.086 41.638
-15198.269 -85005.477 41.928001
-15198.233 -85005.344 41.887001
-15196.152 -85002.961 41.887001
-15189.305 -85003.93 41.987999
-15189.31 -85003.703 41.957001
-15189.164 -85004.039 41.805
-15189.16 -85003.516 41.967999
-15189.041 -85003.383 41.980999
-15188.946 -85004.227 41.902
-15188.944 -85003.258 41.986
-15188.829 -85003.133 41.997002
-15188.672 -85001.109 41.868
-15188.587 -85004.539 41.806
-15187.017 -85001.031 41.834
-15186.95 -85000.898 41.827999
-15186.869 -85000.766 41.826
-15186.737 -85002.375 41.917999
-15186.705 -85000.656 41.853001
-15186.607 -85000.523 41.856998
-15186.497 -85000.398 41.865002
-15186.361 -85000.281 41.882
-15186.231 -85000.156 41.898998
-15186.141 -85000.031 41.903999
-15198.39 -85006.117 42.151001
-15198.111 -85005.609 42.056
-15196.246 -85002.773 42.041
-15189.371 -85003.828 42.192001
-15189.316 -85003.695 42.193001
-15189.079 -85004.117 42.084
-15188.678 -85003.008 42.021
-15188.641 -85001.258 42.179001
-15188.614 -85001.117 42.153999
-15188.76 -85000.953 42.067001
-15188.577 -85002.883 42.027
-15188.481 -85002.75 42.030998
-15188.484 -85000.852 42.132999
-15188.351 -85002.625 42.043999
-15188.249 -85002.5 42.046001
-15188.364 -85001.383 42.026001
-15188.092 -85002.305 42.050999
-15187.922 -85002.117 42.061001
-15187.854 -85001.984 42.050999
