# .PCD v0.7 - Point Cloud Data file format
VERSION 0.7
FIELDS x y z normal_x normal_y normal_z curvature
SIZE 4 4 4 4 4 4 4
TYPE F F F F F F F
COUNT 1 1 1 1 1 1 1
WIDTH 376
HEIGHT 1
VIEWPOINT 0 0 0 1 0 0 0
POINTS 376
DATA ascii
-15198.255 -85005.5 34.529999 -0.19762707 -0.79079115 -0.5793038 0
-15192.394 -85005.43 34.66 0.99117345 0.030291457 -0.12906429 0
-15192.278 -85005.289 34.673069 -0.17598134 -0.94999099 -0.25796849 0.00050893181
-15192.121 -85004.695 34.709625 -0.34476066 -0.90106124 0.26311362 0.054009516
-15196.036 -85002.984 35.073002 0.99774885 0.016632672 -0.064965762 0
-15192.103 -85005.086 35.069 -0.52706891 -0.8400318 -0.12862693 0
-15191.939 -85004.898 35.087002 0.72186494 -0.37117964 0.58406901 0
-15191.745 -85004.656 35.108002 0.70710677 -0.70710677 0 0
-15188.272 -85000.336 35.062 0.89738303 0.43709353 0.060439374 0
-15188.057 -85000.109 35.077385 0.70718223 -0.70170462 -0.086625412 0.099028789
-15193.149 -85006.266 35.214001 0.67761976 -0.73408806 -0.044114862 0
-15192.924 -85006.031 35.221001 0.76408118 0.20842643 0.61052299 0
-15187.975 -85000.008 35.278999 0.79053342 -0.38884673 0.47313333 0
-15193.361 -85000.016 35.497002 0.70641649 -0.61801618 -0.34500977 0
-15191.719 -85004.648 35.490002 -0.62776881 -0.024232622 0.77802259 0
-15193.767 -85000.453 35.679001 0 -1 0 0
-15195.538 -85009.125 36.300999 0.70905727 0.13292834 0.69250834 0
-15192.934 -85006.07 36.296001 -0.50284427 -0.83543319 0.22180848 0
-15198.242 -85005.5 36.509998 0.85449827 0.28330323 -0.43539867 0
-15188.26 -85000.352 36.455002 0.95681602 0.16844538 -0.23691608 0
-15198.258 -85005.477 36.673 -0.35103142 -0.9324342 -0.08569362 0
-15194.159 -85007.492 36.696999 0.79897881 0.5721547 -0.18512672 0
-15193.743 -85007.023 36.723999 0.79280949 0.46486416 -0.39415026 0
-15193.857 -85007.148 36.924999 -0.15839478 -0.87139803 -0.46430227 0
-15193.66 -85006.906 36.937 -0.16820613 -0.73526061 -0.65658098 0
-15198.252 -85005.5 37.097 0.67467672 0.6196844 0.4010019 0
-15188.253 -85000.352 37.056999 -0.16521731 0.46252343 0.87107712 0
-15189.111 -85002.102 37.34 0.83627462 0.15166868 0.5269168 0
-15193.038 -85006.195 37.611 0.026696738 -0.868128 -0.49562189 0
-15198.424 -85004.945 32.466999 0.74867773 -0.51471597 -0.41779074 0
-15197.727 -85009.703 32.712002 0.70954657 0.53220505 0.46184573 0
-15197.547 -85009.516 32.708 0.81690294 -0.54460198 0.18994291 0
-15196.483 -85003.18 32.705002 0.93812221 -0.043974478 -0.34350106 0
-15192.786 -85004.477 32.901001 0.92092419 -0.33232212 0.20361876 0
-15192.472 -85004.148 32.895 0.31418911 0.23558569 0.91966546 0
-15193.765 -85007.055 33.513 0.92116934 -0.38382056 0.064255953 0
-15194.234 -85001.273 33.728001 0.84128916 0.5396955 -0.031004107 0
-15191.672 -85004.562 33.692001 0.11216945 -0.89938813 0.42251512 0
-15198.133 -85005.352 33.881001 0.80000001 -0.60000002 0 0
-15198.241 -85005.469 34.097 0.53293067 -0.82160145 -0.20237587 0
-15196.088 -85003.055 34.492001 -0.50475556 0.031652529 0.86268187 0
-15194.493 -85007.898 34.519444 -0.69410795 -0.15240523 0.70355296 0.00051348686
-15194.137 -85007.484 34.493172 0.64939445 0.32637584 0.68685198 0.0020552042
-15193.856 -85007.141 34.493 0 -1 0 0
-15193.676 -85006.93 34.519001 0.96012866 0.19300963 0.20223819 0
-15193.482 -85006.703 34.487999 0.031204646 0.14432149 0.98903871 0
-15192.206 -85004.797 34.593037 0.17908938 -0.24178943 0.9536587 0.00019356514
-15196.043 -85002.969 34.710159 -0.25747329 -0.024786102 0.96596748 0.0021569091
-15192.043 -85004.586 34.700001 0.96209103 -0.23127732 -0.14453949 0
-15194.228 -85001.234 34.841999 0.19740905 -0.95524198 0.22032356 0
-15189.115 -85002.109 34.87862 -0.48257712 -0.66331166 0.5719589 0.17528698
-15198.263 -85005.484 34.512199 0.72087687 -0.31569374 -0.61698788 0.0034615113
-15195.427 -85008.969 34.562 0 -1 0 0
-15195.352 -85008.883 34.456001 -0.57934231 -0.6061933 -0.54487813 0
-15194.828 -85008.266 34.507 -0.42579705 -0.90481871 0 0
-15196.038 -85002.961 34.711559 -0.25747329 -0.024786102 0.96596748 0.0021569091
-15194.179 -85001.172 34.761002 0.73273474 0.11453075 -0.67080736 0
-15193.025 -85006.156 34.696999 0 -0.77232403 -0.63522875 0
-15192.38 -85005.414 34.745998 -0.56492352 -0.82386178 0.04596962 0
-15192.281 -85005.289 34.677872 -0.17598134 -0.94999099 -0.25796849 0.00050893181
-15192.127 -85004.695 34.68716 0.85260808 0.52226794 0.01719548 0.1126101
-15192.042 -85004.578 34.694 0.96209103 -0.23127732 -0.14453949 0
-15195.741 -85009.32 34.877998 0.46771657 -0.84966135 0.24355036 0
-15191.75 -85004.672 34.941002 -0.63500643 -0.7634263 0.11809782 0
-15190.293 -85002.328 34.876591 0.83141369 0.45116356 -0.32434967 0.091611154
-15190.112 -85002.086 34.893879 -0.043475576 -0.9039433 0.42543668 0.003832225
-15189.956 -85001.891 34.908001 -0.015012201 -0.80051988 -0.59911811 0
-15189.112 -85002.094 34.898998 -0.068579175 -0.46402019 0.88316596 0
-15198.257 -85005.469 35.087002 0.77717048 0.58287787 -0.2371908 0
-15196.035 -85002.977 35.09 0.99774885 0.016632672 -0.064965762 0
-15193.499 -85006.719 35.118 -0.46257001 -0.84414268 0.27102059 0
-15192.104 -85005.086 35.073002 -0.52706891 -0.8400318 -0.12862693 0
-15191.745 -85004.656 35.116001 0.70710677 -0.70710677 0 0
-15188.365 -85000.453 35.112999 -0.32006687 -0.90872389 0.2679143 0
-15188.27 -85000.344 35.075001 0.89738303 0.43709353 0.060439374 0
-15188.067 -85000.117 35.091 -0.1731317 0.6674906 0.7242111 0
-15194.334 -85007.695 35.292 -0.22945154 -0.79592711 0.56022501 0
-15192.944 -85006.031 35.239063 0.60018653 0.17070517 0.78143197 0.017578471
-15191.758 -85004.68 35.307999 -0.048751995 0.40391284 0.91349751 0
-15188.08 -85000.133 35.293316 -0.23196828 0.20542055 0.95078552 0.0042545274
-15187.988 -85000.023 35.289001 0.79053342 -0.38884673 0.47313333 0
-15194.265 -85000.969 35.541 0.85733038 -0.50660026 -0.09132807 0
-15193.957 -85000.648 35.535 0.95637345 -0.08807987 -0.27855289 0
-15195.145 -85008.656 35.702 0.78345186 0.48968855 -0.38263339 0
-15194.539 -85001.258 35.661999 0.15972374 0 0.98716176 0
-15193.761 -85000.453 35.652 0 -1 0 0
-15193.472 -85000.148 35.655998 0.61333847 -0.69269723 -0.37945542 0
-15193.287 -85006.492 36.089001 -0.17662734 -0.94962478 -0.25887367 0
-15198.254 -85005.453 36.305 -0.41465306 -0.41474095 0.80997086 0
-15198.112 -85005.383 36.285 -0.43661723 0.60034871 0.67003495 0
-15195.523 -85009.109 36.283001 0.70905727 0.13292834 0.69250834 0
-15188.543 -85000.688 36.323002 -0.40255055 -0.60382581 0.68800247 0
-15188.245 -85000.359 36.473644 -0.6756565 0.23195851 0.69977391 0.1035775
-15194.149 -85007.5 36.715 0.79897881 0.5721547 -0.18512672 0
-15195.506 -85009.094 36.893002 -0.21868239 -0.90636533 0.36149669 0
-15193.947 -85007.266 36.911999 -0.033513624 -0.31155199 0.94963795 0
-15193.846 -85007.148 36.921001 -0.15839478 -0.87139803 -0.46430227 0
-15193.648 -85006.906 36.933998 -0.16820613 -0.73526061 -0.65658098 0
-15189.447 -85002.508 36.986 0.88280225 -0.050605718 -0.46701095 0
-15189.309 -85002.516 36.893002 0.60653877 -0.53050208 -0.59218097 0
-15187.96 -85000.047 36.910999 0.86317259 -0.31650943 -0.39338893 0
-15194.988 -85008.484 37.276001 0.96095204 0.089420624 -0.2618686 0
-15195.33 -85008.875 37.693001 0.17778155 -0.15343152 0.97203523 0
-15193.014 -85006.203 37.625999 0.026696738 -0.868128 -0.49562189 0
-15194.67 -85008.133 37.929001 -0.4276723 -0.90371501 0.019888122 0
-15195.131 -85008.68 38.089001 -0.50053555 -0.19061975 0.84446925 0
-15193.919 -85007.273 38.291 0.034367573 -0.94130427 0.3358053 0
-15190.327 -85005.883 38.308998 0.23670569 -0.95668548 0.16947958 0
-15199.682 -85011.727 32.287998 -0.43785787 -0.032839339 0.89844424 0
-15198.133 -85010.102 32.349998 0.50977987 -0.80981839 0.29037684 0
-15198.512 -85010.5 32.52 -0.41361627 -0.84205282 -0.34622046 0
-15198.432 -85004.945 32.452999 0.74867773 -0.51471597 -0.41779074 0
-15197.469 -85003.938 32.480675 -0.56401891 0.47513318 0.67537487 0.0018259377
-15197.485 -85001.32 32.498001 -0.2939724 -0.50207049 0.81332988 0
-15197.266 -85003.719 32.494999 -0.2777105 0.048101317 0.95945984 0
-15196.878 -85003.289 32.473999 0 -1 0 0
-15195.262 -85000.57 32.591999 -0.45127565 -0.48508474 0.74902809 0
-15197.727 -85009.695 32.702999 0.70954657 0.53220505 0.46184573 0
-15197.043 -85008.969 32.715 0.62782133 -0.73147351 0.26605815 0
-15195.879 -85002.312 32.667999 -0.59870327 -0.6646083 0.4470461 0
-15195.485 -85007.312 32.705002 0.60540992 0.039129499 0.79495138 0
-15194.304 -85000.656 32.728001 -0.26209709 0.10382484 0.95944023 0
-15193.922 -85005.672 32.717999 -0.56387061 3.665941e-05 0.82586318 0
-15198.962 -85005.414 32.973999 0.8956567 0.33587125 0.29152972 0
-15198.711 -85004.914 32.881001 0.28115571 -0.71455199 -0.64059889 0
-15192.777 -85004.469 32.874001 0.92092419 -0.33232212 0.20361876 0
-15192.469 -85004.141 32.892254 0.27016929 0.19963311 0.94188917 0.00012999293
-15192.074 -85003.719 32.862 0.072798736 -0.95590013 -0.28452635 0
-15196.927 -85008.898 33.097 0.89442718 -0.44721359 0 0
-15196.68 -85008.578 33.283001 -0.37205574 -0.81780112 0.43906245 0
-15196.029 -85002.953 33.324001 0.66080421 0.62549078 -0.41484821 0
-15190.492 -85002.5 33.326 -0.41862956 0.54018325 0.73003519 0
-15199.129 -85011.234 33.485001 0.72872472 -0.26277319 0.63238484 0
-15198.27 -85010.312 33.502998 0.91269284 -0.32844913 -0.2431315 0
-15190.323 -85002.297 33.514999 0.7479012 0.63320619 -0.19923279 0
-15196.12 -85012.75 33.685001 0.90677088 -0.41797316 0.055362117 0
-15191.698 -85004.562 33.699001 0.11216945 -0.89938813 0.42251512 0
-15190.5 -85002.516 33.692001 0.27900851 -0.62741417 0.72698396 0
-15198.258 -85005.484 33.893002 0 -1 0 0
-15190.331 -85002.305 34.098 0.96646225 -0.051002268 -0.25169313 0
-15188.698 -85000.891 34.084 0.84339744 0.22759445 0.4867048 0
-15188.234 -85000.336 34.101002 0.91219789 0.062213287 -0.40499941 0
-15198.265 -85005.469 34.306999 0.95686239 0.27509946 0.093459278 0
-15192.843 -85005.938 34.299999 0.54974788 -0.79568446 0.25429013 0
-15192.744 -85012.867 34.305 -0.5717507 -0.81166095 -0.11961442 0
-15190.292 -85002.297 34.298 0 -1 0 0
-15196.07 -85003.047 34.501999 -0.50475556 0.031652529 0.86268187 0
-15195.359 -85008.891 34.473251 -0.53437197 -0.69550908 -0.48032662 0.0047583948
-15194.51 -85007.898 34.502998 0.73048729 0.12536727 -0.67132062 0
-15194.344 -85007.703 34.530998 0.45259896 0.18274757 0.87278718 0
-15194.209 -85001.195 34.452999 0.78783458 0.39391729 -0.4734405 0
-15194.15 -85007.469 34.499001 0.76360273 0.6421175 0.067793414 0
-15193.873 -85007.141 34.490002 0 -1 0 0
-15192.216 -85004.805 34.592903 0.17908938 -0.24178943 0.9536587 0.00019356514
-15192.146 -85005.125 34.516998 0.70008039 -0.711909 0.05543476 0
-15192.04 -85004.578 34.466999 0.35186353 -0.93463123 -0.051541332 0
-15188.544 -85000.703 34.507999 0.62233609 -0.77792013 -0.086821824 0
-15193.018 -85006.141 34.678001 0 -0.77232403 -0.63522875 0
-15192.491 -85005.523 34.665001 -0.37237731 -0.8644709 -0.3376762 0
-15192.291 -85005.289 34.681999 0 -1 0 0
-15192.135 -85004.68 34.687 0.22196864 0 0.97505379 0
-15192.038 -85004.562 34.695 0.96209103 -0.23127732 -0.14453949 0
-15190.559 -85002.625 34.882999 0.96270114 0.2495898 -0.1044581 0
-15190.29 -85002.328 34.877964 0.83141369 0.45116356 -0.32434967 0.091611154
-15190.102 -85002.086 34.891621 -0.043475576 -0.9039433 0.42543668 0.003832225
-15189.938 -85001.898 34.917999 -0.015012201 -0.80051988 -0.59911811 0
-15188.268 -85000.344 35.046001 0.89738303 0.43709353 0.060439374 0
-15195.749 -85009.32 34.893002 0.46771657 -0.84966135 0.24355036 0
-15192.115 -85005.078 35.07 -0.52706891 -0.8400318 -0.12862693 0
-15191.751 -85004.656 35.298 -1.0875045e-16 0.39238295 0.91980195 0
-15192.844 -85005.914 36.092999 0.51886225 -0.32743108 0.78966504 0
-15194.165 -85007.477 36.720001 0.79897881 0.5721547 -0.18512672 0
-15193.874 -85007.141 36.916 -0.15839478 -0.87139803 -0.46430227 0
-15193.659 -85006.898 36.928001 -0.16820613 -0.73526061 -0.65658098 0
-15198.26 -85005.484 37.085999 0.67467672 0.6196844 0.4010019 0
-15189.286 -85002.305 37.505001 -0.10064229 -0.87421399 -0.47499582 0
-15189.131 -85002.125 37.523998 0 -1 0 0
-15198.263 -85005.523 41.657001 0.23129328 -0.30484557 0.92388994 0
-15199.694 -85001.312 32.443001 -0.12157824 -0.92657065 -0.3559292 0
-15198.523 -85010.492 32.514999 -0.41361627 -0.84205282 -0.34622046 0
-15198.442 -85004.961 32.452999 0.74867773 -0.51471597 -0.41779074 0
-15197.736 -85004.258 32.515999 0.84866035 -0.44831523 -0.28069386 0
-15197.457 -85003.922 32.478001 -0.48749265 0.50262219 0.71394807 0
-15197.484 -85001.305 32.507999 -0.2939724 -0.50207049 0.81332988 0
-15196.871 -85003.289 32.487 0 -1 0 0
-15196.755 -85008.641 32.528 -0.33082283 -0.72363794 0.60572636 0
-15194.32 -85000.68 32.726002 -0.26209709 0.10382484 0.95944023 0
-15193.857 -85000.125 32.710999 0.9149242 -0.39816266 -0.06618271 0
-15198.693 -85004.906 32.880001 0.28115571 -0.71455199 -0.64059889 0
-15198.056 -85004.906 32.917999 0.88487577 0.39037541 -0.25416908 0
-15197.714 -85004.508 32.883999 0.20395803 -0.76740134 -0.60786211 0
-15192.464 -85004.117 32.886002 0.27199805 0.18495609 0.94435602 0
-15196.938 -85008.922 33.103001 0.89442718 -0.44721359 0 0
-15196.038 -85002.953 33.310001 0.66080421 0.62549078 -0.41484821 0
-15194.128 -85001.195 33.240002 -0.1384522 0.18316402 0.97328413 0
-15199.143 -85011.227 33.504002 0.72872472 -0.26277319 0.63238484 0
-15198.276 -85010.336 33.479 0.95898217 -0.24184731 0.14786154 0
-15196.071 -85003.047 33.493 -0.5728268 -0.16957873 0.80194294 0
-15195.678 -85012.312 33.728535 -0.43944198 -0.61959618 0.65037781 0.010700792
-15191.685 -85004.555 33.712002 0.11216945 -0.89938813 0.42251512 0
-15190.486 -85002.492 33.674999 0.80803889 0.083500698 -0.58318162 0
-15198.271 -85005.445 34.307999 0.95686239 0.27509946 0.093459278 0
-15198.276 -85005.5 34.505898 0.68912578 -0.69555056 0.20326108 0.0014385876
-15194.5 -85007.875 34.518002 0.73048729 0.12536727 -0.67132062 0
-15193.51 -85006.711 34.490002 0.22275545 -0.88464659 -0.40961 0
-15192.216 -85004.781 34.59885 0.17908938 -0.24178943 0.9536587 0.00019356514
-15193.011 -85006.141 34.678001 0 -0.77232403 -0.63522875 0
-15194.252 -85001.242 34.830002 0.19740905 -0.95524198 0.22032356 0
-15189.125 -85002.102 34.862999 0.9095757 0.39887783 0.11648393 0
-15191.737 -85004.648 35.130001 0.70710677 -0.70710677 0 0
-15190.227 -85017.359 34.154999 -0.31362796 -0.023429396 0.94925684 0
-15190.102 -85017.234 34.165001 -0.42761475 0.34730113 0.83458227 0
-15193.301 -85013.531 34.292431 0.60181952 0.2914519 0.74355161 0.0050754412
-15192.735 -85012.875 34.316002 -0.5717507 -0.81166095 -0.11961442 0
-15198.264 -85005.484 34.511513 0.72087687 -0.31569374 -0.61698788 0.0034615113
-15195.341 -85008.898 34.463657 -0.53437197 -0.69550908 -0.48032662 0.0047583948
-15194.812 -85008.273 34.494999 -0.42579705 -0.90481871 5.4604588e-17 0
-15194.006 -85007.328 34.584999 0.52040786 -0.80353773 0.28896844 0
-15196.027 -85002.984 34.713871 -0.25747329 -0.024786102 0.96596748 0.0021569091
-15195.469 -85009.047 34.660999 -0.66262549 -0.11835177 0.73954064 0
-15194.179 -85001.195 34.757 0.73273474 0.11453075 -0.67080736 0
-15198.264 -85005.469 34.886002 0.28878635 -0.78548008 -0.54737872 0
-15194.897 -85008.32 34.929001 0.41688377 -0.88587803 -0.20353892 0
-15194.132 -85007.484 34.908001 0 -1 0 0
-15190.284 -85002.344 34.883389 0.9073289 0.22836228 -0.35299426 0.054133348
-15190.102 -85002.078 34.912151 -0.014050646 -0.93529671 0.35358548 0.00089650141
-15189.118 -85002.117 34.875687 -0.26588559 0.62532693 0.73366964 0.19268726
-15196.035 -85003 35.084 0.99774885 0.016632672 -0.064965762 0
-15188.05 -85000.109 35.088001 -0.1731317 0.6674906 0.7242111 0
-15188.08 -85000.156 35.298 -0.15066107 0.12560409 0.98057371 0
-15187.977 -85000.031 35.263 0.79053342 -0.38884673 0.47313333 0
-15194.422 -85001.141 35.534 0.46710938 -0.84077817 -0.27368021 0
-15193.961 -85000.672 35.528999 0.95637345 -0.08807987 -0.27855289 0
-15194.87 -85001.594 35.676998 0.51102787 -0.15882438 0.84476346 0
-15193.762 -85000.453 35.678001 0 -1 0 0
-15193.658 -85000.359 35.683998 0.99227786 0.12403473 0 0
-15194.487 -85007.922 35.896999 0.24746141 -0.96334636 -0.10356968 0
-15193.266 -85006.5 36.103001 -0.17662734 -0.94962478 -0.25887367 0
-15195.521 -85009.125 36.284 0.70905727 0.13292834 0.69250834 0
-15198.253 -85005.492 36.493999 0.85449827 0.28330323 -0.43539867 0
-15188.738 -85003.094 36.535999 0.08493042 -0.83410001 -0.54503578 0
-15198.261 -85005.477 36.685001 -0.35103142 -0.9324342 -0.08569362 0
-15195.483 -85009.102 36.887001 -0.21868239 -0.90636533 0.36149669 0
-15198.273 -85005.484 37.109001 0.67467672 0.6196844 0.4010019 0
-15189.731 -85002.883 37.32 -0.57168859 -0.77843791 0.25924236 0
-15188.538 -85000.719 37.305 0.14813106 -0.59844005 0.78735423 0
-15189.748 -85002.906 37.502998 0.72219944 0.37291181 0.58255023 0
-15193.02 -85006.195 37.612 0.026696738 -0.868128 -0.49562189 0
-15194.654 -85008.141 37.91 -0.4276723 -0.90371501 0.019888122 0
-15195.112 -85008.68 38.099998 -0.50053555 -0.19061975 0.84446925 0
-15195.123 -85008.695 38.497002 0.46550357 0.48736915 0.73876774 0
-15189.147 -85002.844 39.679001 -0.3726238 0.06343323 0.92581195 0
-15199.693 -85011.734 32.282001 -0.43785787 -0.032839339 0.89844424 0
-15197.926 -85009.891 32.366001 0.78560531 0.46063259 -0.41308823 0
-15197.748 -85004.281 32.518002 0.84866035 -0.44831523 -0.28069386 0
-15197.472 -85003.922 32.467472 -0.56401891 0.47513318 0.67537487 0.0018259377
-15197.256 -85003.742 32.499001 0.88452792 0.40736201 0.22730289 0
-15197.717 -85009.703 32.696999 0.70954657 0.53220505 0.46184573 0
-15197.087 -85003.703 32.699001 0 -1 0 0
-15195.676 -85002.078 32.674 0.98618525 -0.041108463 0.16046405 0
-15194.525 -85000.875 32.719002 0.12270714 0.46242234 0.87812787 0
-15194.318 -85000.656 32.723999 -0.26209709 0.10382484 0.95944023 0
-15193.865 -85000.141 32.696999 0.9149242 -0.39816266 -0.06618271 0
-15198.965 -85005.422 32.992001 0.8956567 0.33587125 0.29152972 0
-15198.065 -85004.883 32.919998 0.88487577 0.39037541 -0.25416908 0
-15192.486 -85004.125 32.894016 0.27016929 0.19963311 0.94188917 0.00012999293
-15196.925 -85008.898 33.108162 0.8340854 -0.42810383 -0.34789169 0.0070353779
-15189.336 -85000.883 33.111 0.99276501 0.091285668 0.078003898 0
-15188.312 -85000.438 33.129002 0.47956803 -0.46331838 0.74521846 0
-15198.748 -85004.891 33.278999 0.26382872 -0.43962139 0.85856128 0
-15196.669 -85008.594 33.263 -0.37205574 -0.81780112 0.43906245 0
-15198.278 -85010.336 33.498047 0.95210916 -0.30141324 0.051363077 0.0078551006
-15190.316 -85002.312 33.491001 0.7479012 0.63320619 -0.19923279 0
-15196.113 -85012.734 33.691002 0.90677088 -0.41797316 0.055362117 0
-15190.479 -85002.5 33.693432 0.52473587 -0.61605191 -0.58747965 0.070369095
-15198.236 -85005.484 33.902 -0.27934471 -0.69078314 0.66692221 0
-15190.244 -85017.367 34.148998 -0.31362796 -0.023429396 0.94925684 0
-15188.348 -85000.469 34.097 0.71381533 -0.64236569 0.27898738 0
-15188.23 -85000.328 34.111 0.91219789 0.062213287 -0.40499941 0
-15194.494 -85007.93 34.310001 -0.1217232 -0.41686231 0.90078259 0
-15193.287 -85013.531 34.281395 0.60181952 0.2914519 0.74355161 0.0050754412
-15192.732 -85012.875 34.301998 -0.5717507 -0.81166095 -0.11961442 0
-15198.249 -85005.469 34.521935 0.78396541 -0.40876412 -0.46723664 0.0034050387
-15196.078 -85003.062 34.498001 -0.50475556 0.031652529 0.86268187 0
-15194.116 -85007.484 34.473 0.59580803 0.52133203 0.61092198 0
-15192.811 -85012.953 34.472 0 -1 0 0
-15196.044 -85002.984 34.709408 -0.25747329 -0.024786102 0.96596748 0.0021569091
-15192.246 -85005.312 34.707001 0.81649041 0.094691746 -0.56954098 0
-15189.1 -85002.109 34.875626 0.61892915 -0.66344357 0.42043945 0.031969301
-15193.286 -85013.547 34.287025 0.60181952 0.2914519 0.74355161 0.0050754412
-15194.678 -85008.125 34.476002 0.75463396 0.35375154 0.55261874 0
-15194.145 -85007.5 34.507 0.49262655 0.43104821 0.75598711 0
-15193.609 -85006.875 34.539001 -0.21279249 0.65203232 0.72771782 0
-15192.218 -85004.789 34.597202 0.17908938 -0.24178943 0.9536587 0.00019356514
-15198.272 -85005.5 34.720001 0.38282421 0.22008011 0.89722371 0
-15192.935 -85006.078 34.639999 -0.5222261 -0.73954386 0.42468196 0
-15192.391 -85005.453 34.676998 0.93099225 -0.13079599 -0.34080175 0
-15192.261 -85005.297 34.691174 -0.53031009 0.3131822 0.78783762 0.0094694737
-15198.259 -85005.484 34.910999 0.95395845 -0.13243583 -0.26911706 0
-15195.755 -85009.328 34.876999 0.46771657 -0.84966135 0.24355036 0
-15193.352 -85006.5 34.902 -0.20294498 -0.92178011 0.33035553 0
-15190.295 -85002.336 34.858978 0.83141369 0.45116356 -0.32434967 0.091611154
-15190.098 -85002.094 34.880001 0.17052943 -0.77369332 0.61017901 0
-15198.258 -85005.461 35.103001 0.82960814 -0.48008698 0.2850734 0
-15193.172 -85013.422 35.396999 -0.20928502 -0.89539504 -0.39302352 0
-15192.93 -85006.016 35.223 0.76408118 0.20842643 0.61052299 0
-15188.061 -85000.141 35.299 -0.15066107 0.12560409 0.98057371 0
-15194.553 -85001.266 35.539001 0.73231298 -0.64887476 0.20658959 0
-15194.437 -85001.141 35.508999 0 -1 0 0
-15193.962 -85000.656 35.513657 0.96894652 -0.18429133 -0.16486154 0.0065717339
-15187.211 -85001.289 35.784 0.92785484 -0.34794554 0.13423613 0
-15193.271 -85006.5 36.106998 -0.17662734 -0.94962478 -0.25887367 0
-15188.52 -85000.703 36.323002 -0.55089444 -0.82634163 -0.11693945 0
-15198.254 -85005.5 36.487 0.85449827 0.28330323 -0.43539867 0
-15188.517 -85000.688 36.502998 -0.1743899 -0.098094322 0.97977835 0
-15188.254 -85000.375 36.462002 0.95681602 0.16844538 -0.23691608 0
-15198.277 -85005.469 36.667999 -0.35103142 -0.9324342 -0.08569362 0
-15195.484 -85009.094 36.905998 -0.21868239 -0.90636533 0.36149669 0
-15189.852 -85002.992 36.945999 -0.5084762 -0.36102349 0.7817378 0
-15188.25 -85000.375 37.07 0.93519205 -0.07507392 -0.34609205 0
-15196.043 -85003.039 37.689999 0.98377824 0.16053629 0.080053158 0
-15193.516 -85006.797 37.652 0.70861697 -0.42624307 -0.56229788 0
-15193.108 -85006.312 37.696999 0.63051325 -0.23644248 0.73928881 0
-15195.505 -85009.094 37.901218 0.68546087 0.54054141 0.48780978 0.0023493657
-15194.671 -85008.133 37.908001 -0.4276723 -0.90371501 0.019888122 0
-15195.125 -85008.664 38.096001 -0.50053555 -0.19061975 0.84446925 0
-15194.275 -85007.719 38.693001 0.44357622 -0.8445459 0.29997054 0
-15195.969 -85003.109 41.058998 0.99653119 0.065584958 -0.051227305 0
-15199.685 -85011.742 32.285999 -0.43785787 -0.032839339 0.89844424 0
-15199.531 -85006.078 32.317001 0 -1 0 0
-15199.498 -85005.93 32.240002 0.94496894 -0.28874677 -0.15381469 0
-15198.733 -85005.258 32.320999 0.20912687 -0.71838766 -0.66346449 0
-15199.746 -85000.734 32.451 -0.66743064 0.24123928 0.70451397 0
-15199.661 -85000.539 32.460999 0.19965155 0.099746451 0.97477686 0
-15198.506 -85010.5 32.513 -0.41361627 -0.84205282 -0.34622046 0
-15197.747 -85004.266 32.495998 0.84866035 -0.44831523 -0.28069386 0
-15197.487 -85003.938 32.464001 -0.6073519 0.4377268 0.6629622 0
-15197.493 -85001.312 32.5 -0.2939724 -0.50207049 0.81332988 0
-15196.887 -85003.289 32.499001 0 -1 0 0
-15196.093 -85002.891 32.713001 0.12712628 0.34170869 0.93116814 0
-15194.534 -85000.859 32.712002 0.86811316 0.49606466 0.017301438 0
-15193.87 -85000.148 32.71664 0.84511036 -0.52579302 0.096593179 0.016222851
-15198.971 -85005.406 32.992001 0.8956567 0.33587125 0.29152972 0
-15198.715 -85004.922 32.888351 0.40169814 -0.80756164 -0.43183661 0.0011980942
-15198.065 -85004.898 32.896 0.88487577 0.39037541 -0.25416908 0
-15194.91 -85006.734 32.895 -0.15656552 -0.66967577 0.72596252 0
-15192.78 -85004.461 32.900002 0.92092419 -0.33232212 0.20361876 0
-15197.48 -85009.508 33.103001 0.23255348 -0.34838685 0.90804487 0
-15195.876 -85007.727 33.092999 0.9898569 0.097228929 0.10358497 0
-15193.935 -85005.703 33.096001 0.40677974 0.010110023 0.91347033 0
-15196.688 -85008.586 33.261002 -0.37205574 -0.81780112 0.43906245 0
-15196.033 -85002.961 33.306 0.66080421 0.62549078 -0.41484821 0
-15193.24 -85004.977 33.27 0.74518669 0.55884898 -0.36384702 0
-15199.911 -85012.078 33.491001 -0.24284661 0.37260491 0.89565122 0
-15199.135 -85011.227 33.494999 0.72872472 -0.26277319 0.63238484 0
-15198.271 -85010.312 33.492088 0.95210916 -0.30141324 0.051363077 0.0078551006
-15190.326 -85002.297 33.504002 0.7479012 0.63320619 -0.19923279 0
-15198.111 -85005.367 33.701 -0.54464966 -0.35496837 0.75983822 0
-15196.124 -85012.758 33.689999 0.90677088 -0.41797316 0.055362117 0
-15190.47 -85002.492 33.698002 0.80803889 0.083500698 -0.58318162 0
-15194.722 -85015.242 33.911999 0.85010594 -0.012971471 -0.52645189 0
-15190.231 -85017.375 34.153 -0.31362796 -0.023429396 0.94925684 0
-15188.229 -85000.344 34.112999 0.91219789 0.062213287 -0.40499941 0
-15198.264 -85005.469 34.297001 0.95686239 0.27509946 0.093459278 0
-15193.294 -85013.531 34.287144 0.60181952 0.2914519 0.74355161 0.0050754412
-15195.34 -85008.906 34.477001 -0.53986436 -0.76485354 -0.3514905 1.1487046e-11
-15194.812 -85008.273 34.507774 -0.48929995 -0.85711384 -0.1610636 0.0031438505
-15194.131 -85007.492 34.491924 0.63225055 0.35781667 0.68718737 0.0031628178
-15193.73 -85007.016 34.52 0.68790025 0.15511101 0.70903724 0
-15194.188 -85001.18 34.749001 0.73273474 0.11453075 -0.67080736 0
-15193.125 -85006.32 34.618 0.73579103 0.2248597 0.63878763 0
-15192.388 -85005.453 34.685001 0 -1 0 0
-15192.255 -85005.297 34.696999 0.81649041 0.094691746 -0.56954098 0
-15192.114 -85004.695 34.68729 -0.36499175 -0.70195049 -0.61159343 0.15975423
-15194.236 -85001.242 34.816002 0.19740905 -0.95524198 0.22032356 0
-15189.961 -85001.906 34.929001 -0.015012201 -0.80051988 -0.59911811 0
